# 3D point list with one line of data per point:
#   POINT3D_ID, X, Y, Z, R, G, B, ERROR, TRACK[] as (IMAGE_ID, POINT2D_IDX)
# Number of points: 277, mean track length: 5.0324909747292415
1 -1.2041721565515398 -0.094893339028564644 8.8876281145155325 80 61 67 1.0074229820197584 23 3 21 7 22 6 20 7 26 2 18 10 19 11 17 16 16 15 15 7 14 6
398 0.614541476129433 -0.23113358968151229 8.0175152486800396 55 29 28 0.47777155538931071 28 83 25 46
198 -0.99534405438964002 -0.95155318329646321 8.2044084567409001 65 22 19 1.4338652521212407 21 57 23 209 22 57 20 106 26 51 23 133 18 103 19 86
2 0.67038160827672511 -1.0187727705132303 8.0298607056113838 205 117 116 0.56656900310604907 23 4 21 4 22 7
199 1.1098086864930989 0.085226045984573937 8.35278412821493 67 40 36 1.6193512108834311 23 165 21 175 22 138 20 193 26 96 21 71 22 142
3 -0.70825735753551355 -0.66459733206173688 8.1186369341646003 149 119 117 1.5746485494391715 23 5 21 6 22 8 20 6 26 6 18 7 19 9 28 9
4 -0.68333940821211425 0.24182512195282441 7.8630905858075106 253 254 255 0.8352582678217445 23 6 21 8 22 9 26 3 28 5
401 4.2611211822929551 -3.6998640598479224 10.881653094707897 90 42 37 1.2553123454220283 26 215 25 61
201 -1.5808411151550341 0.069564643453815272 7.105095363110947 137 111 91 1.2966955189422802 22 27 23 77 26 28 28 16 25 15
5 -0.027461051076847418 -0.33681267092266753 7.9607164291536918 89 73 100 1.0746697744747784 23 7 21 10 22 10 20 9 26 7 18 9 19 13 17 27 16 24
402 -0.44207828454270703 -1.4500902334356498 7.0852303476459699 240 157 134 0.37779976545791844 22 134 26 214 25 79
202 -1.4451399395760727 -0.2063647299387657 6.8501917348274857 130 108 79 1.2711949996223839 22 49 23 84 26 30
6 -1.1677545810384105 -0.55845817427834976 8.7952138551327348 73 43 41 0.89037259525360524 23 10 21 26 22 17 20 29 26 16 18 25 19 24 28 19 17 40
403 4.0530344700998988 -4.5357364645197018 11.512258464593758 108 54 57 1.1686588555584227 26 216 25 86
7 -0.72743454865569612 -0.39998151006299337 8.2632346051753167 106 76 81 0.91384962894703303 23 11 21 13 22 14 20 27 26 15 18 14 19 12 28 34 17 15 16 14
404 -0.52425436062256503 -0.28614893257648372 7.590677074181289 169 141 197 1.4672010509113829 26 72 28 84 25 89
8 0.48328854794967974 -0.27951535471247813 8.144716648979216 60 39 38 1.430913963588466 23 13 21 15 22 11 20 15 26 8 18 21 19 21 28 10 17 58 16 78 15 63 25 28
10 0.65699573975702386 0.60686808843273743 8.1858216950997953 38 23 16 1.939267100770633 23 16 21 18 20 17
407 -2.4225996554239408 1.1966899601709946 11.787349525247015 142 136 124 0.55193467114125583 26 142 25 125
11 0.46799964997014393 0.11111580728961547 8.3538818701001247 100 66 67 1.7202165253660076 23 18 21 20 22 13 20 21 26 9 18 32 19 29 17 32 16 31 15 16 14 16
408 -3.6997076966907496 1.5934753027584634 15.54603207464473 13 7 0 0.17589073451341367 23 213 25 127
12 0.32272120490805417 -0.29671949415325538 7.8495162983189459 117 103 102 0.75483903939677488 23 19 21 25 22 16 20 23 26 14 18 22 19 22 28 33 16 33 15 31 14 40 25 47
13 0.42666722904153764 -0.40424153179698447 7.9708893006414874 66 40 46 1.0718632940412649 23 20 21 14 20 26 26 10 18 23 28 15 25 21
410 0.36003095969936905 -0.5804077170443952 7.8801086518776007 70 53 50 1.8208399967571323 26 78 25 50 23 196 22 168 20 151 28 95
14 0.63760517376392356 -0.72475762661984799 8.1764206764801575 152 95 95 2.0548629957839704 23 21 21 27 22 19 20 30 18 41 19 37 17 85 16 54 15 46 25 23 26 17
411 -1.8389766816153579 -0.63994042468484946 8.9091353097338235 164 116 80 1.0463603084623714 28 12 25 5
15 0.55438137244759944 -0.85927288423540571 8.0885804441780316 131 71 73 1.8140499527192886 23 23 21 29 22 53 20 42 26 49 18 42 19 42 15 93
412 -1.2934260400728488 -1.1689640765331863 8.0756082455730844 169 99 86 2.890869498998117 28 68 25 58
212 3.545178283600257 0.42391010073425434 8.4909293873690714 118 73 70 1.284688016565275 20 3 18 4 19 4 17 4 16 3
16 0.41122175341680639 -0.45930888749867993 7.9147977011776449 57 28 34 1.3196863379556787 23 24 21 54 22 51 20 113 26 44 28 56 17 150
213 0.45549613335308753 -0.84200161776650817 7.2407617592851521 193 113 112 0.064984454792166441 20 4 18 8
17 1.1992716542765067 0.63975622185609504 8.1760462330281083 255 246 227 0.80475521625328383 23 25 21 40 22 149
214 0.87740272114139861 0.6104451467602332 6.9259908489526998 71 42 34 1.4401567264963946 21 118 18 27 19 15 16 39 17 29 15 38 14 20 19 93 12 25
18 1.1067583100741516 0.25334123806322328 8.2529222335186834 103 63 63 1.6464393520838776 23 26 21 32 22 42 20 56 26 54 18 80 19 67 17 25 17 91 16 107 15 58 12 62
19 1.025494852131889 0.13551061115389704 8.2901264293794732 54 16 13 1.094740998633617 23 27 21 193 22 24 20 20 26 31 18 19 19 19 17 26 16 22 15 15 14 9 12 11
216 5.2032213799141021 -4.4765424233438385 5.3537864864094704 148 150 149 0.74536972508710142 20 49 22 40 26 39 18 48 23 42 17 45 19 44
20 -0.12240998531022812 -0.3384268673024684 8.2526508298805119 93 78 113 1.23195803972735 23 29 21 34 20 146 18 61 19 55
217 0.94710425710457147 0.040648243530724007 8.1648193078871838 97 60 54 2.1438042745467012 26 40 18 55 22 25 19 51 17 54 16 45 15 43 14 38
21 0.3979803369434799 -0.65185726671783784 7.7968509933288974 98 55 54 1.3679280546934758 23 33 21 36 22 39 20 226 26 47 18 181 28 60 25 53
22 0.76132169136197803 0.42461954604504598 8.0252210487468787 44 19 15 1.4799768445933998 23 37 21 58 20 53 18 29 19 17 17 23 16 18 15 9 14 11 12 15
23 -1.0602277405073117 0.66133477259983908 6.4348896649286944 60 58 72 0.44398008210943618 23 40 21 47
221 0.25001704550608589 -0.12327031102299409 7.9469605437577595 87 68 72 2.0323815136541121 26 63 18 91 28 54 25 37
25 -0.42055934302832398 0.21561078108083445 6.8202862931525017 151 145 179 2.0114492955905834 23 47 21 191 22 43 26 135 19 28 21 21
26 0.62282117567383921 0.14207341206029697 8.4779352690620211 49 20 16 1.3835891210607061 23 48 21 33 22 28 20 35 26 26 18 31 19 50 17 65
223 0.61843116386240049 -0.41902277389743153 7.7430739263496609 138 95 92 1.7921380117562002 20 209 21 83 18 95 19 159 19 162 17 149
27 0.34274978510117088 -0.1080385518229776 8.0245727266344637 72 44 47 1.633679003769902 23 49 21 77 22 69 20 87 26 62 18 73 19 53 28 53
224 -1.305634336773402 -1.0674634951433699 8.6251712128165199 66 36 25 1.0606897869307101 20 157 23 207 18 129 22 130 28 142 26 210
28 0.7246078678950304 -0.39282281678220854 7.9739969657081122 149 101 100 1.700721281984559 23 51 21 35 20 25 26 74 22 77 18 62 19 152 28 55
29 0.1155932376211133 -0.36888922635929283 7.9636615280079273 102 85 92 0.96188528310847266 23 52 21 51 22 46 20 92 26 53 25 48
30 -0.18403409409723884 -0.39634808438376201 7.9237815723646534 132 112 122 1.2498595755053807 23 53 21 53 22 78 20 63 26 75 18 37 19 34 17 21 16 25 15 20
227 -1.4931414829616607 -0.55370413785154404 8.9767347022939976 49 31 27 1.0319265812676843 20 149 23 91 18 179 19 167 16 138
31 0.81833286053804088 -0.43844782158753887 7.8793511257442512 112 61 57 0.88490929486575098 23 55 21 52 22 29 20 62 18 38 19 65
32 -0.014498755247457799 -0.42999443079948751 7.9020548016735939 72 54 64 0.62298903201830613 23 56 21 84 22 50 20 95 26 43 18 74 19 76 28 86
33 0.92755179915805486 -0.49104233153096588 7.928204180756671 146 92 90 1.6638839171509732 23 57 21 154 22 81 26 186 18 172 19 110
230 -0.39778585937978506 -0.85227284431643069 8.0351571751399309 90 55 50 1.9674576300081086 23 208 22 196 18 130 21 163 23 35 22 204 20 156 18 187
34 0.2800984092131884 -0.51937818252825219 7.8948140599772572 49 34 29 1.5557460496016988 23 58 21 88 22 205 20 96 20 218 19 78 18 64 28 197 25 96
231 0.6313139655781751 -0.40716657566915848 8.1399906724702369 55 29 27 1.1958575783181686 23 184 22 117 18 169 20 207 21 210
35 -1.4467854155647482 -0.50155588819362251 9.1662408924145069 110 86 82 1.4468931517833696 23 59 21 42 22 30 20 64 26 32 18 65 19 58 28 36 17 81 16 53
232 0.29649911256544143 -0.38033810572929189 8.0168577605932594 54 42 47 1.2685742862984639 18 170 23 144 22 115 26 107 28 173 25 91
36 -0.030060926589282392 -0.88379519768574821 8.1477141707356999 134 90 89 1.5451966753518496 23 61 21 238 22 55 18 186
233 1.937143156431709 -2.0368869563899836 7.5411149293686357 250 240 233 0.72332114751186138 21 9 18 26
37 0.54278244373516149 -1.6969979914524096 7.9980158524551657 255 187 170 2.3197244327773721 23 63 21 3 21 39 17 61 20 69
234 2.8443695358645913 -2.6941390930153237 6.7581066883977181 51 26 25 1.5640906104873762 18 72 22 151 20 71 19 89 28 130 28 24 17 77
38 1.3118618909825641 0.63879979867871695 8.3461643775279253 57 29 17 1.3914132952282576 23 65 21 119 18 144 20 174
39 0.86384292125979134 0.34197797904957072 8.659572269191175 81 52 49 1.834311809204312 23 71 21 179 22 143 20 184
236 3.6564243296001173 0.78238948985597434 7.877624054713511 105 55 54 0.85950702407297297 20 19 19 16
40 1.0725441579138328 0.30685450351499538 8.3762854449535151 67 25 26 1.1448282360204243 23 72 21 67 22 99 20 80 26 90 18 111
41 0.94156730419945822 -2.3502529065306503 7.6553017469254767 229 148 128 1.0014910666922021 23 74 21 104
238 0.32184817351477379 -0.49742656541782448 7.9456375167736901 65 51 49 1.5929884753843959 18 13 17 20 19 165 18 175
42 0.84180712800615398 -0.25958011616277032 8.1684586423189067 255 245 228 1.7507378387786523 23 81 21 59 22 72 20 60 26 69 18 123 19 54 28 113 17 57 16 75 14 71 15 136 16 100 12 114
43 0.41425816208337418 -0.33298786785657669 7.8672881751509536 52 29 35 0.4303466148038213 23 82 21 82 22 95 20 145 26 86
44 0.32584538375766209 -0.43429381376668702 7.9066392903017322 95 75 82 0.55664609877920102 23 85 21 148 22 189 26 61 28 117 25 94
45 -1.3459882867047495 -0.39822288042897863 8.9812817989528 82 58 54 1.2296957734530467 23 86 21 147 22 52 20 147 26 45 18 127 19 56 20 39 17 60
46 0.47697326781396537 -0.50774064367714145 7.9333948744397285 130 90 92 0.86541686990042721 23 87 21 55 22 83 20 40 26 76 18 39 19 35 28 57 17 38 16 26 15 64 14 109 16 137 25 31
243 -0.25547212031841859 0.063575761608361342 6.598969768239769 136 126 189 2.3472409262761276 18 87 21 24 19 52 23 14 28 73 17 76
47 0.18551438007546914 -0.52019309915690337 7.7973111443389502 63 47 47 1.7464501957188177 23 88 21 89 20 65 26 46 18 177 28 58 15 65
244 -1.7393339160603094 -2.230308118899591 8.48393755471586 250 182 163 0.85120723466155634 18 71 20 47 19 63 17 67
48 -0.089656920984169955 -0.54732781463504387 7.9438478587158654 65 51 50 1.0762044566939051 23 89 21 90 22 84 20 150 26 77 18 97 19 79 28 87 17 84 16 80 15 68 25 97
49 -0.06210169241295567 -0.62219819703280221 8.0285905570426443 112 92 91 0.61136234840961767 23 92 21 91 22 87 20 98 26 198 18 66 19 80
50 -1.1390278523212161 -0.69578734853945623 8.5811205608134475 78 47 45 0.87218219539945974 23 93 21 93 22 90 20 99 26 82 18 135 19 113 28 90 17 111
51 -0.32084057410593275 -0.76409637705806732 8.0525674395926092 129 101 97 0.3880590907535228 23 94 21 96 22 91 20 230 26 83 18 133
52 -0.58513240367096464 -0.81930689899679909 8.1307406551070436 94 54 54 0.82184828301014612 23 96 21 98 20 101 22 127 18 131 19 175 25 107
249 -0.58631938664771344 -0.033961100946210895 6.8493745925746436 140 129 197 1.3006902971395262 18 90 20 138 19 105 17 79
53 -0.87344417311401601 -0.89841656402669212 8.0787559638785211 152 108 109 1.1241838965140443 23 97 21 99 22 160 20 105 26 120 18 68 19 60 28 91 17 28 25 76
55 -0.86575256365076825 0.23478489842158776 7.6894341546773788 166 159 210 1.587389227591421 23 102 21 22 20 36 18 33 19 100 17 101 28 50
56 0.25484065972006559 -0.57653434261687253 7.8511201797322752 145 132 124 1.1722533912965045 23 103 21 155 22 206 20 110 26 195 18 98 28 120 17 90 25 99
60 0.95236437628607662 0.26950931272657197 8.2127184491722005 85 52 45 1.692670911714379 23 117 21 68 20 187 18 112 19 68 17 134 16 132
63 0.85015418910570961 0.003091388979831541 8.0949818789555703 56 17 14 2.043523309615273 23 125 21 198 22 158 26 133 22 152 18 115 19 70
64 -1.4500054668604798 -1.1035986081243132 8.5547003196017073 124 77 69 1.7876935910583522 23 132 21 100 22 32 19 87 18 104
67 -0.39208563272010116 -0.70771313207209574 8.0405886988101898 91 65 64 0.19812333584443886 23 137 21 234 22 215
75 0.41916430983736591 -0.20128960560853806 7.9824478075761842 36 14 16 1.0874456825256646 23 151 21 115 22 170 20 139 26 102 18 163 28 108
89 0.4874700057151497 -0.39338382814795231 8.2423315910714194 93 62 67 0.9044653886821068 23 183 21 208 22 186 26 177
91 -0.19075275576584436 -0.5296578389732467 8.0751172791932877 117 97 106 0.41033266353798031 23 193 21 216 20 217
92 1.1738738074730035 -0.62022075710696156 8.5932853432968166 249 181 177 0.020560532220866033 23 194 20 248
94 -1.0723160153729701 -1.0568652892342649 8.3124835552732872 133 84 80 1.3384213503674709 23 198 21 114 22 131 20 240
95 -0.4541699168484255 -0.61956805523074499 7.9310115361652285 108 81 89 1.2025198401782222 23 199 21 225 22 123 20 246
101 -0.0028680805187951369 -0.89447324707140385 7.5459499171356015 122 77 74 2.4643766591402261 23 1 22 1 26 1 25 1
102 2.1356825668230619 -0.14685974208748756 7.5875295475820064 129 74 72 1.4211961919748652 21 2 22 2 20 1 23 2 18 1
104 1.1305581493998789 -2.3879976643242835 7.4619375410458924 255 158 145 0.54111544833711323 23 8 22 12
105 -0.53041948780131454 0.61349607507749859 6.5323956679937449 168 159 249 0.69972014029808494 23 17 22 15
115 0.80103173521427895 0.10055552802775818 8.7392184019920673 70 35 33 0.50816222928543808 23 122 22 66 26 94
120 1.1317539703422252 0.58419418625376296 8.6842740004107757 47 30 15 0.48520043404338481 23 45 22 97
121 3.2554972633653532 0.64979533186376359 7.6631131017787411 73 32 36 1.4586762368288984 21 125 22 98 26 139
123 0.45156393711767812 -0.13562230714328355 7.9496405167651387 109 77 79 0.7074662930687311 21 201 22 107 28 164
124 0.75197048115419973 -0.24610520994238669 8.2391951427016519 64 31 13 1.6726303691026365 21 81 23 80 22 110 20 90 18 59 21 50 19 32 28 112 17 35 16 74 15 89 14 88 12 113
129 -0.80131739923765821 0.40744399349240173 7.6742294154719408 187 174 215 1.8016409066093453 21 249 23 46 22 141 20 82 26 59 18 81 25 44
130 1.1628303435152931 0.48868140839911806 7.7153538254408405 68 38 34 0.86954004029701404 23 68 28 99
132 0.25173723843960821 0.011143399554253397 8.4612853991523611 46 24 26 2.1746111421028163 21 132 22 156 20 57 18 20 19 20 17 12 16 17 15 130 18 156 14 17
136 0.46719634970346918 -0.23442527898128368 7.4293540121886954 38 19 19 1.6178323434726993 23 150 22 176 26 162
137 0.82370168516424047 -0.31738297443910723 8.2651956048640596 46 10 0 1.4113604659628276 21 173 22 180 18 166 19 108 17 144 16 98 15 100 14 107
138 0.83116947985746603 -0.36206815328568875 7.9012134610651179 147 99 97 0.60298031389458717 23 182 22 184 26 104
143 0.21588988141819007 -0.80399617538505386 7.9090150665672345 101 57 57 0.24978258182740817 23 206 22 223 26 85
145 1.1083673532812388 0.48026526114418405 8.3121784453510177 79 39 36 1.8431041559286383 21 12 23 15 20 8
146 0.60479980338673756 -0.40764351518003217 7.9291949130584749 122 79 73 1.6746970879759253 23 12 20 14 18 15 19 10 16 12 15 5
150 -0.41062898510780332 0.36707862111401796 6.4876931400814417 157 146 215 1.6343141215501671 23 113 20 54 26 91 18 52 21 64
151 0.95958747931896349 -0.11083861328422895 8.5335671052316684 125 86 79 1.5569356722231065 21 48 20 59 18 89 19 103 17 78 16 103 15 86
155 0.97121131896395752 -0.15337753533381046 7.9787454208623521 128 87 81 1.8040899974505102 21 136 20 136 25 136
157 0.54111955377105114 -0.25990519233799508 8.1261810500403353 65 35 35 1.5321377861916812 23 149 20 142 18 124
158 2.89917884163666 -2.4029519732659219 6.1803649878920943 109 58 59 0.36611110993453089 23 129 16 129
161 3.6072126935657862 0.7145447857668713 6.7627069405848115 94 49 52 1.0484253986166916 23 164 17 131 16 127 15 119 12 60
164 1.9022285058031783 -0.43687005136095236 8.1167240088149057 218 137 133 1.6701794885287589 21 117 20 208
165 0.38408814103381544 -0.51656642454946411 7.8999075343196257 74 43 41 1.0840549186244857 23 192 20 214 18 174
169 0.87736231612939652 -0.20946905566990048 8.2351783343333054 14 3 1 2.1159567396938566 21 79 23 152 20 88 23 177 22 172 26 159 18 117 19 74 28 111 17 80 16 102 14 105 12 111
173 1.0177277384005394 -0.4588761828432486 7.8600992686665911 125 62 57 1.4026502846045341 21 85 20 117 18 96 15 44 16 96 17 112
54 -1.0287125092231906 -1.1062926321370559 8.2953684535883117 112 58 54 2.0569080863789346 23 99 21 101 22 132 20 68 20 158 18 69 18 173 28 140 21 242
251 -0.2079048887553018 -0.77608197111424426 7.6956588687450154 147 118 114 0.85774594107609892 18 185 20 234 19 115
57 1.251279779795349 0.56241565365853574 8.3349081019839399 69 31 29 2.1118113583880382 23 108 21 121 18 122 16 122
254 5.2497023231875311 1.3326695059706568 9.040386660586103 81 48 52 1.2099519740240274 20 182 19 129 17 71 14 61
58 1.0104756716623209 0.3463969166041303 8.4123883508255162 90 57 52 1.4197488028379572 23 110 21 63 20 126 26 138
255 -1.0052548084705915 0.52052476044770712 5.948029464976293 3 3 27 2.125815815388425 21 178 19 130 15 117
61 0.91858270623507332 0.21132018784217507 8.4087103002997647 59 26 20 0.95639963782676962 23 120 21 186
258 0.85224109881022436 -0.39489039841768442 7.555039033711016 198 149 145 1.1731721481637081 18 94 20 148 19 156 17 146
62 1.0267778638394933 0.03166991478710833 8.4921224870117644 95 54 52 0.76127870672443443 23 124 21 131 22 153 20 131
259 -1.861695110015382 -2.524999409047548 7.7631621907696999 6 0 0 1.6071412409189081 22 80 19 157 25 133
68 0.30938594230936262 -0.61687352851043553 7.7446219080599299 80 50 46 0.99506804117687853 23 139 21 227 22 88 20 112 18 137 28 181
265 -0.27617170009908809 -0.72847740535817929 8.0057444674914802 136 103 104 1.0788465266155782 26 18 28 21 25 14
72 0.57488033759920587 -0.38703830869509093 8.0960924722179524 121 82 77 0.67423946455377615 23 145 21 207 22 114 18 168
269 2.3138481302958005 -2.204018368207572 3.8401645334037156 0 0 0 0.16715192980025431 22 60 26 41
74 0.27548492704496025 -0.21177171025438796 7.7492008376288908 85 68 76 0.54157170556823375 23 148 21 141 20 141
271 -0.89985394765208582 -0.015229262646410056 9.0988691451798616 225 196 232 2.9369689691917911 21 74 28 78
176 -0.45998401103300746 -0.55956719384036724 7.7395880117840647 134 107 114 1.6603100574581966 21 224 20 225 26 79 22 85
76 0.31805461016360526 -0.16246470517367456 8.181652867441116 117 98 96 0.74791579752688953 23 154 21 137 22 71 28 107
273 0.16432713756693273 -0.038639849326508116 8.1404092148505232 58 40 56 2.5270305177055326 23 126 28 104 17 92 15 87 19 141
376 2.0796636730078415 -1.6663686058739704 5.080408610033448 89 44 42 1.2257762565348631 15 95 14 115 20 166 12 87 17 145
179 -0.65726948576591471 0.59454034238473363 5.5935227033157116 159 155 188 0.80440589878669533 21 169 20 169 18 141
276 1.2003371932015743 0.53166167670854247 7.362867772991498 223 208 197 0.8482735423215636 26 57 28 146 22 22
185 0.057927134397491815 -0.67346529233823171 8.1031452367232291 76 49 47 1.2768828342995735 23 138 26 48 18 67 19 59 25 101
85 0.71699318910897558 -0.10713698133084502 8.0872707980171743 131 90 91 1.6099863643722458 23 172 21 200 22 163 20 134 18 56
282 -2.311812126316759 -0.8777574947868545 10.654285860031681 119 97 78 1.4837913986698119 26 118 28 42 25 55
383 0.97040293334598227 -1.3486393859249 5.4267643964728336 193 106 101 0.39407081364536328 16 83 12 29
186 -2.0392366752741036 -2.5980441133956793 8.2851460085776889 254 244 234 1.0576479356834176 20 232 26 52 28 26 25 59
86 0.50461084331966832 -0.15865486920604938 7.999708881254378 48 14 16 0.7412688206683935 23 174 21 231
283 -1.1806280309968584 0.40034965497449554 5.405973877542003 68 47 28 1.0117737091030421 26 27 28 51 22 48
384 -0.39385910228763099 0.22791932552410762 4.3543179993909771 114 123 243 1.1848622579524206 14 47 17 69 19 46 12 38
187 3.1794604822843486 0.55521310576219718 7.3585158680760667 71 33 32 1.2597371975172613 21 184 26 60 28 170
87 0.57180956847514486 -0.18591851434829887 8.119216221175547 112 76 78 0.69132508931913705 23 176 21 240 26 100
284 -1.1643284099094138 0.81864775214324348 6.2433945053479905 120 121 124 1.3385440803970201 23 43 21 45 22 38 26 24 22 21 18 49 19 45 17 48 16 43 15 39 14 32 12 32
385 -0.21897157758664315 -0.093498365471902753 2.954226775683674 100 87 141 0.032101466744602347 16 57 12 45
188 -0.047410784477002775 -0.16729488738812012 7.9862529490143164 116 99 144 1.3520873465032714 21 49 26 65 28 80
88 0.39078154086398159 -0.25812944462366655 8.1239541170256739 101 86 88 0.7685509349227585 23 178 21 164 17 106
285 -0.16728450354814112 -0.92235830108972605 7.6365885150826189 102 61 63 1.1520046632902663 18 0 19 0 20 0 17 0 16 0
93 -0.19802876446732223 -0.61795296383000553 8.4450236093928535 96 75 80 0.87094084253668735 23 195 21 222 22 122 20 219 26 197
290 0.61606897523976867 0.39253038497751214 8.0216344664632722 100 85 80 1.8281832433267746 18 51 19 48 17 30 16 30 16 128 15 55
197 0.059032652444804393 -0.56364484059718367 8.5029373308484075 63 44 52 0.94795760940850915 23 191 26 194 19 166
294 0.86049597556054913 0.52331975277368581 6.9596019836162171 137 97 97 1.3797275046670234 19 26 20 173 17 47 18 76 16 59 15 110 14 49 12 42
99 0.31413674643908868 -0.75619046156413983 7.9769171743937752 100 58 55 0.43194290897328069 23 204 21 237
296 -1.0107397763476884 -0.056287003128098229 8.7557775123731698 101 90 124 1.1003197961316993 20 38 17 55 18 58
100 -0.94411813460353478 -2.0713929516175673 8.0370105175644362 250 252 249 1.5114543894159596 21 1 22 0 20 2 23 0 26 0 18 2 28 0
297 0.53387331342982425 -0.3032839658434518 7.7698747564189352 120 89 85 1.8843155636698661 18 36 19 33 17 59 16 48 15 62
304 3.6785726913569654 -2.4978680835562583 6.4801286186813982 87 41 41 0.49817100085870686 18 171 17 132 15 102
307 -0.25363832011776649 -0.70918030738359106 8.2601312630041672 107 85 87 1.0129084108003339 19 82 17 152 18 99
406 -2.1939610402218124 1.2913369898949105 11.518793637302286 147 147 124 0.88219255361412585 26 145 25 124
112 -1.0571165897137456 -0.85114799577006761 8.4151704889476466 45 12 13 1.622881689984818 23 36 22 54 20 43 26 50 18 106 19 41 28 45 25 13
309 -0.77095943832948544 0.39221560888739732 8.286538459965092 111 101 170 1.4350734376993071 17 3 18 3 19 3 16 1
117 -0.61409367572824125 -1.6233732046164508 8.104691889676106 255 251 216 1.6899787016817529 23 100 22 82 20 109 21 102 26 70 18 70 19 88 21 166
314 -0.34765358115265182 0.055833900867590172 7.4064942530857421 143 133 193 0.42490905856923694 20 22 16 135 15 84 14 100
118 0.31874891799282307 -0.69203792179935442 7.8182519766655538 128 87 83 1.0455574180430454 23 201 22 89 26 113 28 182
315 -0.64298212998043525 0.52443817389090508 5.437924171790776 162 166 208 1.800666924710733 20 16 17 22 18 11 16 20 21 31 20 45 18 47 19 43 17 42 15 10 14 12 14 27 12 14
122 5.6298710446515514 -3.7897910402901203 5.3559805503070201 69 61 62 0.19760323505630364 23 121 22 102 26 109
319 0.57405092949401781 -0.50924159085666076 7.5480690273639448 0 0 0 1.4393250761004683 18 17 19 57
125 0.16182059204957475 -0.26843672805128876 7.8902988087999031 82 63 69 1.2023964631853394 23 147 22 112 20 202 21 202 28 115
322 -0.18543717122612044 -0.11199433832694061 3.7321113448178758 130 120 175 1.3004368498304015 17 34 15 33 14 39 12 47
323 1.3897108973825982 -1.7145753955618162 6.6954636033899781 187 104 98 1.7957181511512814 17 62 15 34 16 38 12 16
135 0.23366252919777772 -0.23425062897681695 7.8942297142106765 86 69 77 0.22780993371783712 23 179 22 174 26 161
332 0.71409867258214943 0.49427172638752292 5.6612422772540416 151 118 111 0.9690056886518843 17 94 15 98 14 83 12 92
344 0.9408949714371514 0.28125534706192806 7.1868805793776298 111 74 71 0.59706844239442991 16 112 15 53 17 155 14 52 12 95
149 5.2868595528917899 -4.3971820847143892 5.3463769528640732 0 1 1 0.7443219417202207 23 44 20 48 26 38 18 45 17 43 19 38
346 0.55437637637594472 0.029002188404633381 6.7658223403468893 54 29 25 1.1482776816249927 16 134 19 101 15 59 17 31
152 2.8172525552064198 0.92709209586724928 7.5138358702882497 88 43 45 2.3899425911858709 23 156 20 77 22 96 28 201 26 146 22 230
349 1.0066385828903053 0.73646173442066498 7.2498951089983734 65 35 25 2.061951132192398 16 85 15 90 17 95 19 127 12 79
109 0.23587617663071303 -0.048626579788247137 7.4501548543151781 136 119 127 1.7441307365539416 23 76 22 44 20 58 25 27
306 0.75604735808935319 -0.13757987389390536 9.0085007409330089 89 50 45 0.80685686551420899 18 158 19 142 17 138
59 0.50523396825005584 0.27529524691732871 8.061319062180976 52 24 21 0.24349919214069304 23 114 21 127
256 0.53850720694072174 0.097846044986846098 8.3616252618616418 90 58 56 1.4452793742995482 26 93 19 136 22 103
156 0.055252302206733661 -0.18391684014438955 7.8716346593276114 83 64 92 0.85461411771336415 21 140 23 78 20 140 26 66
353 1.0922170854846078 0.6369626293432481 7.2631793250699221 72 34 33 2.1809994532255059 16 116 15 109 17 122 19 66 14 45
70 -0.051609500718675844 -0.49632402420406119 7.9749845559872963 142 123 131 0.46637783948075662 23 141 21 116 22 120 20 215 26 189 18 134 19 111 28 176
267 0.0056655637744323041 -0.2267420230628997 7.7906897809047635 89 75 100 1.1646874231168083 26 22 28 31 25 45
167 -0.52066822375833144 -0.77926883730892738 8.0845953393012024 132 100 101 0.19630144200180877 23 205 20 244 18 183
364 0.95686360161230311 -1.2399835889228359 5.3209191925168939 246 253 245 1.3915484630205854 16 29 14 18 19 25
374 2.2182222216073408 -2.0520600791011701 5.5106587732746108 100 50 51 0.65376926029395577 15 73 16 90 14 104
177 -0.68449777003493262 -0.89318782937783125 8.2314132417642032 44 24 23 1.0887591449005263 21 158 20 104 23 62 22 56 26 153 18 188 19 116 28 93
77 0.6766564786395024 0.3041858928962482 8.3438841654532876 43 20 14 1.3302453404658108 23 161 21 65 20 84 18 53 19 49 16 62
274 -0.046423486541653181 -0.77409871072613035 8.0632289440016454 133 93 94 0.44600983631251623 26 116 28 123 22 126 25 64
174 -0.22815396200200913 -0.27805325141198656 7.7630785561589954 132 116 154 0.59372483743335869 21 204 20 144 22 73 26 55
371 -0.52563790715307901 0.3349970088660002 4.8674970070444639 115 122 245 0.27093721861650799 19 95 14 57 12 40
81 0.40523586003724787 0.031446086051717302 8.073486813069513 65 39 38 0.78285246624818416 23 168 21 73 22 154 20 85 26 131
278 -0.47858385459890201 -0.77745638022606434 8.0526685594934584 95 59 59 2.0717457543972979 26 84 28 185 25 160
375 -1.0149829411152926 -0.62710256597588165 6.5861908651907308 46 20 21 1.1462887792864309 18 128 14 112 20 108
82 1.0617898307127502 -0.11925662150551999 8.4726906731562259 89 46 45 1.39530897699834 23 169 21 133 22 68 20 197 18 157 19 104 17 104 16 70 15 61 14 118 12 107
279 -1.1392148384555978 -1.1285943043741959 8.3774962081770372 119 59 51 1.2302387567057547 23 189 26 213 28 191
83 0.45886880261982427 -0.10692646797361004 8.1547640004941293 69 33 33 1.2351827159961064 23 170 21 134 22 159 20 135 18 116
280 3.0323693154520193 -2.6368623096702701 7.2148589952301361 94 48 48 0.41647818260171132 26 165 28 195
180 -0.70283686033603732 0.44814890009090536 5.1798303497482632 106 111 141 0.6337147251374563 21 194 20 180 17 128 15 111
377 3.3888671803547004 0.78698275639047188 6.8475445674502069 93 47 45 1.0049650556117466 17 50 15 40 14 50 18 148 16 47
184 5.3964699227073769 -4.4756144842671413 5.6278506926067475 0 0 0 0.054313566052625849 21 44 22 37
84 0.78179544909264054 -0.13264869743137589 8.1145853434589537 61 31 19 1.4613786082948803 23 171 21 135 22 165 26 156 18 75 19 72
281 -1.9291758775931174 -0.71204541994502701 10.057551580206434 129 102 80 0.20160466262144347 26 36 28 40 25 24
378 -0.20358917344906025 -0.092114699245079631 2.6309027170340986 146 137 190 0.13846041927904154 17 135 14 68
116 -0.61569115353421988 -0.3792317509252815 7.9040166677380466 114 82 98 1.4670329268291775 23 54 22 79 26 42 19 77
313 -1.5723539634233288 -0.10737518350520187 8.8290646372952519 92 74 67 1.5012803819533804 20 89 16 76 21 80
66 -0.64757298199929714 -0.77141439087357111 7.7276835596203091 145 110 110 1.9000204617115481 23 135 21 160 22 224 26 206 22 225 19 176 25 104
263 -0.87399117152971728 0.59585494956550134 5.6639414726549369 0 1 3 0.65099728307902383 20 120 19 94 17 98 16 89 15 76 12 57
163 0.66458525096913901 -0.3100402714745667 7.9976447092290091 141 97 96 1.1884950687972256 21 203 20 201 18 93 19 150 17 107 16 77
360 -0.99693420265197208 -2.4146810357738864 8.3870674816743591 252 252 250 1.6673364490537499 17 2 19 2 14 1 12 0 16 2
262 -0.88545422091668691 0.50517867568227837 5.9559879750799185 128 129 236 0.31384260755056503 20 52 19 64 18 28 15 23 14 23
162 1.2236292780125975 -0.21152155198881259 8.4651299745410995 135 87 85 0.38349891668280117 21 78 20 198 18 119
359 0.060030012613843893 -0.11682825406207302 5.6033088350821165 80 63 69 1.951868073627717 16 93 19 73 15 88 16 32 17 33 15 28 14 33 12 36
336 0.90750789442786983 0.74889174073202625 7.1402732970736693 62 33 21 1.7850632284264465 17 117 15 142 14 82 12 55
386 0.47663248192166879 0.46728656733849877 5.5758520531260194 90 67 60 2.059794590099338 15 101 17 119 12 54 14 84 12 83
189 0.15625564286711777 -0.21545961784653253 7.6638893736872653 118 100 114 0.77889436960558223 23 79 26 67 28 82 25 36
141 1.7970136949774718 -0.62317448128017305 7.9634373190682677 190 101 94 1.3774879023709292 21 223 22 207 20 222
338 0.87634097550572654 -1.3477791375802746 5.6247931559852011 252 251 247 1.6052107330658867 15 3 16 9 14 3 12 7
388 1.578482477641681 -1.7065807621036688 4.8680140129134006 0 0 0 0.010573413770813212 15 72 17 73
191 -0.80475571747120556 0.55556135161224374 8.4020457117556777 148 132 167 1.3547749265101732 20 55 28 27
71 -0.010392345394995246 -0.35421203257786027 7.8124947923483763 101 86 107 0.36133368600418497 23 143 21 145 22 116 26 106
268 -1.7157182318966027 -0.51540682517588232 9.6458029465056985 98 70 56 0.48452082129917234 22 31 26 33 28 37
168 -0.58332124106763206 -0.64157888055048518 7.6466482690668283 128 95 98 1.1242276523045753 23 202 21 236 22 211 20 229 26 202
365 0.12413745956545824 -0.15573582528038443 5.4540096876880861 66 37 39 0.60587086710027338 15 32 16 46 17 56 14 25 12 28
341 1.3027650643195432 -1.8174644567623344 6.4763913533417714 204 103 97 1.3503454958569883 17 63 15 24 14 19
192 -0.91475791888129154 0.46903175610621317 10.484405087015048 251 244 253 1.6042439819252436 22 64 26 89 20 34 18 54 17 74 16 67
389 1.9444295836669321 -1.8949081300336019 5.2607668222115631 92 50 51 0.42528446131579356 14 86 16 49 12 100
73 0.96707487327975339 -0.30015449865755151 8.0650232699767894 142 92 91 0.047572045165795718 23 146 21 143
270 -1.1091292930861534 -0.9342892070026837 8.5068093395781048 82 55 48 1.0728555080593509 26 73 28 61 22 129
170 3.308310025359622 -2.4724425849374363 6.8674521217022004 105 47 46 0.82923383078623003 23 131 20 31 22 135 18 44 19 47
367 2.4270179857623977 -2.1868955818974061 3.7474496059363318 1 3 1 1.0019545013674171 16 41 14 29 12 34
196 -0.75312122268908932 0.57499683120010947 5.5840685891801991 173 172 248 1.4072107138626286 20 177 21 176 18 143 19 124 17 126 16 119 15 103 15 106 14 80 14 85 12 85 12 89
96 -0.31462559214571095 -0.67549433372768342 8.0005412323576746 125 101 101 0.066146504465339512 23 200 21 230
293 -0.50072497962558704 0.52774937049819204 5.6721426999024942 127 137 198 0.75157826303255693 18 46 19 39 17 44 16 40 15 45 14 30 12 35
390 2.109551959924119 -1.8438550794951338 5.2871391907994996 83 43 41 1.2947830747758673 14 114 17 148 12 126
90 0.1012534454181877 -0.43738521965689087 7.8783845366131526 70 55 63 0.59875966664665958 23 187 21 149 22 193 20 179 26 182
287 1.1281339342859986 0.46580801160473373 8.4699057084430276 71 31 29 1.5669715370252344 18 16 19 18 17 17
128 -0.184435866938781 -0.46004555009664339 7.9150572819527047 103 79 93 0.69008972530182522 21 214 22 119 20 249 26 164
325 -0.024541114137141041 0.21268821208782226 4.534429065205571 69 44 49 0.50109067509371574 17 127 15 49 14 87
78 -1.2796531688928046 -1.1318720151768169 8.3051306488406862 116 61 54 0.42788709254968504 23 162 21 165 22 155 20 159
275 -1.1020970624259756 -0.99094905825561186 8.2421450023495861 96 56 50 0.0051521088930120296 20 107 28 124
372 3.0903055967257771 0.96794582158305165 6.8083430706485197 64 37 35 1.8342151413472134 15 74 18 145 12 86
395 -1.4353753559651512 -0.9222947480615884 9.0519128277271612 34 14 15 0.99848956720647042 28 3 25 3
345 0.52785920910578887 0.2414461311367247 7.7202821281754908 38 23 20 0.89495417753839368 19 117 15 57 18 82 14 65 12 63
98 -0.28020477131044086 -0.7059510094529855 8.0165653797145175 105 79 77 1.5789624528074842 23 203 21 235 22 217 26 81
295 2.8293382956024513 0.77018934239012038 6.3861838874455161 85 45 43 1.3396788643707966 23 41 17 49 16 60 15 51 14 48
392 -0.20382210471164972 -0.097491347163345413 2.6956628818211228 94 71 87 0.01319604572219917 15 4 12 4
119 -1.1396826256222612 -0.77230096767532141 8.603324939961583 136 102 108 1.6362239359633355 21 56 22 92 20 100 23 95 26 117 18 101 19 83 28 47 17 153
316 -1.3651098101389274 -0.22878838781594557 8.7749698538020375 55 39 37 2.1647628424891314 20 24 16 23 18 60 17 36 20 61 15 17
69 0.23439829673464488 -0.17851321754083291 7.79562722913243 112 94 101 1.5075489465107093 23 140 21 139 22 109 20 81 26 158 18 121 28 166
266 -1.3185468410757992 0.82638586672452352 4.7617742566614947 0 1 0 0.88001103686113702 22 41 23 39 28 29
166 2.6596528146882066 -2.8220225527251843 6.7620669558596038 117 66 70 0.45878099821719531 23 66 20 216 18 178 28 52
363 -0.47473415945704373 0.20570173612645098 5.7811536871022176 130 123 202 2.387810969481988 19 98 14 14
80 0.68098622396251784 0.071653502608703179 8.2660483389846249 99 68 65 1.0210565998379246 23 166 21 195 22 104
277 2.8995283539401866 0.75365620221436502 7.5701183470321007 63 35 34 0.76600725516433898 26 141 28 156 22 63
106 0.52436655253357778 -0.61771183470745883 7.9000684661474532 110 59 58 2.0699257438144238 23 30 20 41 26 111 17 41 20 111 16 34 18 40 14 75 12 49
303 -0.47234276314695617 0.44986121278728258 5.4256942397244297 150 158 240 0.86470606873911315 19 123 20 176 17 125 16 118 15 104 14 79 12 88
153 0.63703049104736476 0.012136549384691423 8.1273002152935039 77 41 37 0.49668197026261873 21 72 20 86
350 -1.5903299974963494 -2.1888888521257104 7.3116804419956125 234 209 188 0.89577127277792523 17 109 15 96 14 113 12 75
103 -0.49044453964400025 -0.88641419174183 8.0737634677152901 107 62 57 1.2716637643200237 21 5 22 5 20 5 26 5 18 6 19 8 28 8 17 9 16 10 15 19
300 2.7308960162010445 0.88702673308324076 6.5093796681313449 83 46 47 1.7580618185922381 23 67 17 68 16 55 14 60 19 125 12 37
397 -1.9661151437312834 0.80120304434847178 9.5623628043985089 163 158 155 1.3079910904333039 28 28 25 42
